# .PCD v0.7 - Point Cloud Data file format
VERSION 0.7
FIELDS x y z intensity
SIZE 4 4 4 4
TYPE F F F F
COUNT 1 1 1 1
WIDTH 1240
HEIGHT 1
VIEWPOINT 0 0 0 1 0 0 0
POINTS 1240
DATA ascii
13.269304 -9.937901 -0.484322 0.933333
-10.209114 -21.210503 -1.896334 0.894118
3.210888 -2.597846 -1.460554 0.976471
0.205291 -0.909662 -1.534919 0.984314
16.181566 3.219666 -2.040946 0.945098
0.438403 7.233452 -1.889668 0.980392
-0.061738 3.686201 -2.031573 0.984314
1.395149 0.028519 -0.831090 0.984314
32.101730 0.153286 -2.039593 0.980392
21.805470 -15.385089 -1.892514 0.945098
1.359615 -4.351708 -1.084264 0.988235
-4.675861 -26.509710 -0.283479 0.909804
0.570460 -4.076500 -1.501682 0.988235
-4.830645 1.396064 -2.031573 0.980392
3.426611 -1.953948 -2.043453 0.976471
23.776588 -2.994388 -2.041975 0.976471
-4.711172 -6.809100 -2.041360 0.980392
5.409924 -10.785381 -2.043202 0.972549
21.935551 16.082905 -1.234707 0.878431
6.757102 6.278212 -1.892500 0.976471
32.684639 -1.777866 -2.039865 0.980392
29.777670 2.236246 -2.039654 0.976471
25.265429 -28.762646 0.313939 0.901961
31.300486 14.456978 -1.305276 0.874510
19.864613 -4.684808 -2.043137 0.960784
42.403786 13.354355 -1.693966 0.917647
22.673080 13.931666 -1.799272 0.913725
2.552168 -2.989209 -2.031573 0.984314
-11.280058 19.437431 -0.859620 0.913725
0.345160 6.392202 -1.889839 0.984314
0.498416 -5.815658 -2.032581 0.984314
-2.563438 -8.558544 -2.041714 0.984314
2.432051 -2.927031 -2.031573 0.984314
11.629537 -11.492882 -2.044406 0.949020
0.429861 -6.418040 -0.707271 0.984314
4.516674 -9.262833 -2.047278 0.901961
-4.196466 5.992724 -2.041987 0.945098
0.562910 24.004013 0.359208 0.909804
-4.025247 0.016161 -2.043970 0.968627
25.385220 -7.117505 -2.042480 0.976471
2.946795 20.160357 -0.593792 0.909804
10.322239 8.266323 -1.888290 0.964706
4.999856 11.726061 -1.888270 0.964706
1.873071 6.494174 -1.889637 0.984314
36.063229 -8.027205 -2.040434 0.964706
30.243992 -5.855064 -2.041207 0.988235
20.507252 -1.936770 -2.042442 0.964706
16.764257 -22.530020 -1.448331 0.894118
-0.165756 7.936236 -1.889607 0.976471
-13.888926 -1.306357 -2.031573 0.945098
10.876367 -17.374121 -1.879173 0.921569
69.224442 -20.942368 -1.683482 0.839216
82.388489 3.253179 -2.028452 0.807843
3.760657 -0.106799 -2.043062 0.984314
0.463309 0.915445 -1.363186 0.984314
-1.624986 4.262461 -2.042878 0.980392
25.436396 -1.953549 -2.041416 0.980392
27.414181 -11.161676 -2.042881 0.968627
28.366573 13.125037 -1.556340 0.933333
-8.876776 19.771368 0.248710 0.925490
33.306770 0.863071 -2.039196 0.976471
1.437400 -0.904554 -1.435524 0.988235
2.134500 -5.022214 -2.042790 0.984314
-9.175785 -7.489423 -2.040448 0.964706
3.134564 0.826277 -2.042960 0.988235
68.388725 -23.806252 -0.528695 0.839216
5.859629 20.532784 -0.532472 0.917647
4.122676 11.974561 -0.315831 0.949020
-4.019952 -0.875854 -2.041740 0.968627
-1.385488 -6.263350 -1.021461 0.972549
33.248917 -0.496665 -2.039486 0.976471
-1.407739 5.695567 -2.042580 0.980392
111.792511 -7.448131 -0.913764 0.717647
-12.874592 4.227945 -2.032581 0.933333
-5.649558 4.914668 -2.043235 0.968627
2.714162 -9.506806 -2.042721 0.984314
-0.808948 -0.900062 -1.482362 0.984314
12.607167 -1.957852 -2.031573 0.949020
-23.061855 2.798377 -2.038119 0.905882
12.916504 -26.593086 -0.344034 0.890196
-2.088811 -22.547543 -1.796839 0.925490
1.955764 -8.809394 -2.042599 0.988235
8.243224 5.224364 -2.041515 0.976471
-0.140842 -1.607885 -2.032581 0.984314
-1.910117 -3.291475 -2.031573 0.984314
32.012737 -9.575172 -2.041596 0.972549
0.086426 3.685693 -2.031573 0.984314
-0.674026 -6.287240 -0.890559 0.984314
5.858106 5.768496 -2.041698 0.980392
-7.449924 -9.898431 -2.032581 0.952941
-8.026816 18.710321 -1.050030 0.921569
-3.556819 -0.977201 -2.032581 0.972549
0.634031 -4.472604 -2.042515 0.988235
15.416103 3.407222 -0.187252 0.949020
13.305642 -0.377288 -2.041972 0.952941
1.905093 -4.418632 -1.562185 0.984314
23.604794 -2.600677 -2.041930 0.976471
-68.762527 11.150771 -0.810570 0.756863
18.829222 2.528430 -1.460675 0.952941
30.291080 -6.761832 -2.041382 0.984314
-0.016836 -5.028310 -2.031573 0.980392
-2.545391 -6.659824 -2.031573 0.972549
40.742260 7.436827 0.863965 0.937255
10.403854 -14.795972 -1.892653 0.921569
4.850534 6.774975 -1.889227 0.980392
-0.658594 -9.441669 -2.042055 0.988235
0.481797 -3.667432 -1.551995 0.984314
-1.269252 -4.177038 -2.042150 0.984314
15.640348 -7.820121 -2.032581 0.945098
26.686724 -7.470318 -2.042279 0.980392
-2.800801 -2.040664 -2.031573 0.984314
-0.267812 -6.147295 -1.063879 0.976471
26.498739 -1.510805 -2.041103 0.984314
-22.060677 -18.927298 -1.880181 0.890196
11.050566 6.662783 -1.879173 0.949020
33.003349 -5.995436 -2.040659 0.980392
3.480404 0.858826 -2.042913 0.984314
25.730341 -1.918666 -2.041347 0.984314
-4.317621 -10.046202 -2.041305 0.976471
4.844970 8.034048 -1.888989 0.976471
4.531638 -0.785140 -2.032581 0.984314
-4.874746 2.894834 -2.031573 0.976471
29.727209 -10.546373 -2.042272 0.972549
-5.470742 6.152744 -1.879173 0.968627
-7.087324 -5.258445 -2.040953 0.968627
1.087363 2.682090 -1.080694 0.988235
-2.861272 -9.723946 -2.041607 0.984314
25.758268 -4.984487 -2.041966 0.984314
-6.920039 10.891298 -1.879173 0.949020
1.943008 1.835400 -2.031573 0.988235
15.218038 21.708475 0.021468 0.913725
15.262048 12.413355 -1.880181 0.921569
-2.097424 -0.839740 -2.032581 0.976471
2.240037 -0.842875 -1.164443 0.988235
2.206732 -30.725031 0.985282 0.858824
-0.841109 7.463941 -1.889777 0.980392
46.165276 -17.273966 -2.040209 0.917647
32.879208 -5.580426 -2.040600 0.980392
-24.061846 -16.092216 -1.879173 0.890196
9.451061 14.663256 -1.881453 0.909804
-1.223457 3.477773 -2.031573 0.984314
-15.254798 -26.643131 -0.390645 0.905882
28.507257 0.681705 -2.040236 0.980392
3.490612 6.774428 -1.889390 0.984314
2.835193 -6.563021 -1.497557 0.988235
32.902195 -6.150270 -2.040712 0.980392
-1.917305 -8.869725 -2.041829 0.988235
26.492901 -0.867455 -2.040973 0.984314
18.370964 15.289030 -1.572380 0.921569
1.903945 -2.631650 -1.163918 0.988235
-1.086035 4.909590 -2.031573 0.980392
0.547888 -7.504486 -0.644738 0.984314
-17.211491 -29.165119 0.686799 0.894118
37.973404 7.415830 -1.884484 0.945098
-26.872377 3.494620 -0.428930 0.890196
48.071354 -12.740970 -0.577473 0.823529
1.605397 -4.249236 -0.877999 0.988235
15.371989 8.755845 -1.880181 0.929412
32.260654 -1.771245 -2.039952 0.984314
34.672081 -4.053453 -2.039914 0.976471
-4.001047 -13.868282 -1.888811 0.968627
-0.555002 -5.713656 -2.032581 0.984314
3.392478 -0.599047 -2.032581 0.984314
-9.313984 1.767686 -2.031573 0.960784
-9.920136 -25.171776 -0.885864 0.921569
13.946722 4.659422 -2.040941 0.952941
-1.668316 8.084137 -1.889758 0.976471
-3.397523 -10.508565 -2.041469 0.980392
1.638533 -6.524808 -0.980319 0.988235
-4.278002 -3.129244 -2.041597 0.976471
10.049788 15.342923 -1.700475 0.945098
22.897186 21.260166 0.359703 0.901961
3.742834 16.281771 -1.560094 0.949020
-4.271018 20.448784 -0.623479 0.905882
27.571905 -0.943207 -2.040763 0.984314
0.834461 -4.024733 -2.042573 0.984314
2.994395 2.905449 -0.721392 0.984314
-1.359621 -2.818716 -2.042188 0.980392
34.725594 -5.915670 -2.040283 0.976471
11.803234 6.694779 -1.888411 0.960784
-8.668086 -17.556526 -1.887735 0.945098
-4.505273 1.773984 -2.031573 0.980392
0.181120 -4.469753 -2.042425 0.988235
28.127329 -7.442340 -2.041973 0.980392
34.702923 -0.485103 -2.039180 0.972549
-29.768757 12.326917 0.861241 0.874510
-3.653186 17.151382 -1.400706 0.917647
1.960603 -0.901800 -2.009544 0.988235
37.866997 4.225214 -2.050248 0.854902
-13.302008 -13.507112 -2.039383 0.941176
43.417603 5.069088 -0.209940 0.933333
-7.752226 -22.035995 -1.828683 0.909804
0.629820 -12.465411 -2.042186 0.976471
-49.887989 30.453609 0.929216 0.780392
30.199173 1.274303 -2.039762 0.980392
-2.916406 -3.865127 -2.031573 0.980392
-1.192888 -0.899650 -1.828786 0.972549
3.116716 -6.890052 -2.032581 0.984314
27.170885 -5.359204 -2.041748 0.988235
5.037944 1.015066 -2.042697 0.984314
-7.682384 -6.586668 -2.040781 0.968627
1.388923 -7.307738 -0.900945 0.984314
10.601141 -25.209322 -0.818411 0.886275
5.558801 10.445094 -1.888447 0.968627
22.384201 -23.487154 -1.149591 0.917647
-0.394141 -3.551670 -2.031573 0.984314
13.232887 -9.652230 -1.313302 0.952941
-4.838379 -4.758047 -2.031573 0.972549
2.756482 -12.333400 -2.042613 0.976471
-5.357676 3.085283 -2.031573 0.972549
2.934392 -6.924027 -2.032581 0.984314
-6.283147 -29.261742 0.764743 0.898039
19.259579 -29.293642 0.337459 0.894118
8.731327 2.773592 -2.041922 0.972549
-20.270685 -21.454475 -1.880181 0.890196
-58.505817 -23.037178 -1.568077 0.776471
2.040730 -5.158630 -2.042766 0.988235
57.582939 15.210962 -0.840884 0.870588
0.482930 -3.330010 -1.256466 0.984314
67.010422 -25.742872 -0.528909 0.839216
-4.985051 -1.096089 -2.041540 0.968627
26.790556 -0.904555 -2.040919 0.984314
-8.881035 20.701357 -0.561710 0.913725
30.046087 1.951480 -2.039656 0.976471
6.509723 1.454559 -2.042438 0.980392
4.414054 17.312840 -1.313880 0.945098
-0.010159 -5.997728 -2.032581 0.984314
16.842676 14.675282 -1.748761 0.913725
19.226130 -6.583939 -2.032581 0.933333
-2.507344 -6.305742 -2.031573 0.972549
1.609220 -9.515380 -2.042501 0.984314
1.107732 -13.814301 -1.942223 0.956863
2.225085 -4.228242 -0.822518 0.984314
3.898904 1.285201 -2.032581 0.980392
35.616188 4.072183 -2.038059 0.960784
-8.309766 -4.763284 -2.045388 0.945098
-5.782461 -2.187900 -2.031573 0.972549
25.989038 5.260389 -2.039829 0.960784
6.650343 -4.925983 -2.043689 0.972549
1.674688 -2.756602 -0.872871 0.988235
-1.367110 -0.884433 -1.488273 0.976471
7.741424 -24.352367 -1.113401 0.917647
-9.682658 -10.458851 -2.032581 0.945098
-1.641339 -2.372144 -2.042150 0.980392
-5.468476 -26.392851 -0.313604 0.898039
21.418545 16.513350 -1.137941 0.917647
31.040361 -1.678237 -2.040189 0.988235
-1.182756 -0.901224 -1.654941 0.980392
2.556990 -6.791039 -1.133089 0.984314
2.165605 1.938584 -2.031573 0.984314
44.341480 -2.851043 -2.037648 0.941176
25.777973 -6.495395 -2.042271 0.980392
-1.529375 2.994111 -2.031573 0.984314
17.441004 1.022118 -2.042479 0.949020
24.483912 6.089581 -2.032528 0.956863
26.754692 -7.142046 -2.042199 0.980392
-3.624887 -10.274179 -2.041433 0.980392
9.011465 -4.641103 -2.031573 0.960784
5.041556 0.330594 -2.042826 0.980392
50.122818 -9.796736 -2.032354 0.913725
-7.670205 -24.203352 -1.061994 0.925490
0.285017 -11.691143 -2.042150 0.980392
1.616308 -10.596915 -2.042459 0.984314
5.402341 15.460680 -1.763987 0.925490
3.660642 -0.801683 -2.032581 0.984314
-1.913615 -9.901143 -2.041788 0.984314
-0.575002 -1.521469 -2.032581 0.984314
24.947969 -18.472961 -1.892487 0.941176
-2.588828 -5.614443 -2.031573 0.972549
31.577669 0.521226 -2.039627 0.980392
-62.232201 3.088995 -0.013347 0.776471
38.745796 -29.338722 -1.105393 0.894118
-1.461009 9.081110 -1.889545 0.972549
13.530293 -23.082962 -1.362413 0.905882
1.392993 6.270444 -1.889736 0.984314
3.168945 -26.909218 -0.315284 0.898039
-10.083867 25.359814 0.771435 0.898039
-1.408789 3.166084 -2.031573 0.984314
-9.567754 -18.127645 -1.879173 0.921569
5.905371 0.356445 -2.031573 0.976471
-0.887782 1.290213 -2.043353 0.984314
2.295058 2.616270 -1.143605 0.984314
-3.808476 2.697461 -2.031573 0.980392
35.442097 -8.126678 -2.040584 0.968627
14.776392 5.929149 -2.040601 0.949020
-1.668694 -4.562103 -2.032581 0.980392
-1.722424 -6.257142 -1.485243 0.980392
12.189271 7.886567 -1.888139 0.956863
0.275732 -2.450572 -2.042527 0.980392
30.121262 -0.708579 -2.040183 0.984314
1.841044 10.286013 -1.888921 0.972549
1.520084 7.066938 -1.889570 0.984314
13.144763 8.109254 -1.880181 0.937255
28.612549 -0.657367 -2.040488 0.984314
10.164050 21.242399 -0.247780 0.925490
4.180026 6.592329 -1.889342 0.984314
12.047338 -2.855092 -2.042593 0.952941
-0.198214 -0.908974 -1.533868 0.976471
0.425830 -2.776744 -2.042543 0.980392
0.656560 -4.056242 -0.964050 0.988235
0.936521 5.750010 -2.042289 0.988235
10.295368 0.564899 -2.032581 0.964706
4.743200 -6.045482 -2.032581 0.984314
1.906751 -4.416395 -1.409929 0.984314
-0.487367 -11.855841 -2.041990 0.980392
6.712442 5.091083 -2.041724 0.980392
25.294880 -10.928330 -2.047136 0.901961
-3.745332 -9.419013 -2.031573 0.960784
1.451152 2.620498 -1.164156 0.988235
5.285261 -7.389168 -2.043317 0.976471
0.015447 -22.583773 -1.766057 0.925490
17.606033 4.330045 -2.032581 0.933333
18.249823 -2.375414 -2.041760 0.933333
-5.478695 -8.737235 -2.041129 0.976471
29.777994 -22.124620 -1.758588 0.929412
41.464043 -18.054512 -2.041351 0.925490
0.788416 -0.905785 -1.285056 0.988235
2.021523 -3.768740 -0.564840 0.984314
-0.180293 -3.163447 -2.031573 0.984314
4.180063 -8.301962 -2.043061 0.980392
-8.425742 -5.635000 -2.031573 0.960784
23.553347 -2.970384 -2.042017 0.976471
6.043476 -13.199172 -2.043229 0.964706
-15.761261 22.831425 0.007734 0.874510
-4.502815 20.054703 0.037344 0.905882
-1.748242 17.942686 -1.170284 0.929412
-0.330371 2.652324 -2.031573 0.988235
1.501169 -6.549066 -0.952818 0.988235
3.904705 -8.098948 -2.032581 0.980392
19.710741 -10.212719 -2.044297 0.952941
0.813416 0.906334 -1.528186 0.988235
1.113397 -4.319236 -1.058647 0.988235
-18.569160 5.366504 -2.031573 0.925490
29.220226 -0.150170 -2.040257 0.984314
-3.712717 -5.630219 -2.032581 0.972549
28.593784 5.214801 -2.039294 0.964706
27.257334 -1.263002 -2.040894 0.984314
26.941135 -4.130103 -2.041054 0.901961
20.721308 12.118203 -1.879173 0.909804
35.583530 0.836567 -2.038726 0.968627
13.655926 -8.980992 -2.043562 0.933333
-6.272823 0.638180 -2.041356 0.960784
0.487146 -5.481751 -2.032581 0.988235
1.946328 21.464159 -0.250753 0.917647
31.435268 6.091718 -2.019562 0.960784
30.681101 -5.759820 -2.041096 0.988235
7.566191 2.352363 -2.031573 0.968627
1.343732 -9.301943 -2.042458 0.988235
-31.287519 16.917675 -1.360479 0.866667
-2.038301 -8.738124 -2.041811 0.988235
-8.757930 -27.201855 0.047528 0.890196
-2.821838 -3.225951 -2.032581 0.976471
25.683325 18.613337 0.533129 0.866667
-1.768077 7.182163 0.327362 0.976471
26.917599 6.938117 -1.886892 0.956863
9.080209 11.104603 -1.892427 0.921569
8.669250 7.866274 -1.888564 0.968627
9.438203 20.113184 -0.554093 0.913725
-1.091465 2.974629 -2.031573 0.984314
9.973677 15.945187 -1.559569 0.941176
25.939138 -28.877254 0.314877 0.901961
-6.633886 -2.612178 -2.031573 0.972549
-10.673855 -28.163828 0.408759 0.870588
24.944538 -4.587074 -2.042056 0.980392
-52.191578 -3.498347 -1.418933 0.811765
1.783135 -24.253910 -1.207244 0.933333
20.585335 -14.534679 -1.892596 0.945098
29.693684 -0.091713 -2.040146 0.984314
-9.033809 -2.875185 -2.031573 0.960784
-8.515842 15.883677 -1.745042 0.913725
1.870497 0.704575 -1.031784 0.988235
-1.596316 -13.722747 -2.041694 0.972549
4.516400 0.962645 -2.042769 0.984314
-9.458964 0.634561 -2.031573 0.960784
-21.611265 18.199093 -1.142410 0.894118
7.160991 -26.442963 -0.432415 0.886275
-16.196125 22.685009 0.007248 0.874510
8.181309 1.838516 -2.031573 0.964706
28.452276 0.012301 -2.040384 0.984314
11.942028 15.210712 -1.692023 0.901961
15.796141 2.534300 -1.482725 0.929412
-10.993682 5.670225 -2.043731 0.945098
1.123992 -16.663002 -1.889712 0.960784
29.374655 -6.256968 -2.041471 0.988235
110.397980 -13.664865 0.227345 0.643137
-1.060176 2.889346 -2.031573 0.984314
-5.913965 -0.158506 -2.031573 0.976471
4.430076 -6.860745 -2.032581 0.984314
-3.396088 -3.194225 -2.041769 0.976471
4.145541 1.030154 -2.042801 0.984314
25.457453 -25.518724 -0.618972 0.913725
-0.023223 -9.744961 -2.042169 0.988235
4.321504 -2.605596 -1.884308 0.980392
1.029266 10.164470 -1.889041 0.972549
-3.140071 -14.859513 -1.888941 0.964706
-12.261683 -5.514050 -2.039917 0.952941
1.332806 -4.403812 -1.522264 0.988235
16.305519 6.106021 -1.951806 0.917647
-0.037390 -0.028832 -2.042564 0.972549
-3.748405 -11.680782 -2.041351 0.976471
7.092070 3.533174 -2.031573 0.968627
27.245506 14.248793 -1.404837 0.898039
24.262888 -0.109105 -2.032581 0.913725
4.068894 7.748687 -1.889136 0.980392
27.248203 -26.438887 -0.441925 0.858824
11.499779 -6.457703 -2.044586 0.952941
36.337788 2.411069 -2.038247 0.960784
2.761921 8.044009 -1.889236 0.980392
-3.650451 -8.840156 -2.041487 0.980392
2.757646 -4.235632 -0.842999 0.984314
-2.395401 -22.677773 -1.750543 0.937255
5.331931 1.333981 -2.032581 0.976471
3.383242 -1.742451 -2.031573 0.984314
-9.036991 -3.723655 -2.045278 0.945098
-4.227559 7.064912 -1.879173 0.968627
-3.034622 -14.901056 -1.888961 0.964706
12.683923 -0.000697 -2.032581 0.956863
27.601410 -8.933785 -2.042387 0.976471
10.592380 4.889498 -2.032581 0.952941
33.687183 0.889975 -2.039111 0.972549
9.885564 -3.254535 -2.032581 0.968627
0.482480 -3.039648 -2.031573 0.984314
26.141727 -2.070814 -2.041292 0.984314
11.799372 -4.581556 -2.032581 0.960784
3.367199 -0.229446 -2.043133 0.984314
0.900612 -4.340046 -1.329156 0.988235
1.469259 -26.235935 -0.564600 0.925490
-43.784081 11.623965 -1.894123 0.827451
2.661093 -4.402361 -1.283818 0.984314
30.071106 0.463433 -2.039954 0.980392
-0.432502 -5.868343 -2.032581 0.984314
-1.463477 -2.236572 -2.031573 0.988235
3.446345 -0.800883 -2.032581 0.984314
-40.008129 -15.208585 -1.898759 0.831373
8.331035 -0.952822 -2.031573 0.964706
91.432022 -17.333078 0.146208 0.698039
1.468472 -4.403146 -1.505545 0.988235
26.584639 -1.098549 -2.041001 0.984314
1.809004 -2.889736 -0.730582 0.984314
-1.034160 9.318721 -1.879173 0.960784
-0.835291 25.082273 0.573668 0.847059
-0.573370 -14.935070 -1.889447 0.968627
1.770469 2.517500 -2.031573 0.984314
2.950388 11.650093 0.829286 0.941176
35.173286 -26.006786 -1.252666 0.909804
2.086367 9.140869 -1.879173 0.960784
2.859555 6.096534 -1.999144 0.988235
-5.734519 4.262578 -2.043369 0.968627
9.521951 -6.939320 -2.032581 0.968627
40.099655 7.699902 -1.883982 0.937255
7.138861 -0.735696 -2.042778 0.972549
26.685114 -26.453558 -0.392464 0.874510
14.907564 5.095526 -2.040743 0.949020
2.367396 6.101018 -1.974965 0.988235
0.382939 -2.620113 -2.042541 0.980392
-0.623563 1.347049 -2.043311 0.984314
-3.988750 4.028994 -2.031573 0.976471
-2.765273 2.793193 -2.031573 0.984314
-2.131055 -1.734805 -2.031573 0.988235
0.636309 -5.403262 -2.031573 0.976471
-3.043380 -8.688886 -2.041614 0.984314
2.497559 2.847109 -0.759070 0.984314
7.586369 5.574413 -2.041528 0.976471
0.468359 -3.229482 -2.031573 0.984314
23.379402 -1.491282 -2.041751 0.976471
10.014783 18.635542 -0.899124 0.909804
3.452479 14.982737 -1.874261 0.952941
-20.756178 -23.426043 -1.821289 0.898039
1.011458 0.566937 -0.752258 0.988235
-4.233945 -12.035205 -2.031573 0.949020
-0.250666 -10.356807 -2.042099 0.984314
29.911886 -0.548940 -2.040194 0.984314
-0.780088 -1.953970 -2.042338 0.976471
34.051235 21.889233 0.670838 0.835294
3.163005 -7.106215 -2.032581 0.984314
-5.899479 2.837674 -2.041520 0.952941
5.295371 -2.638086 -2.031573 0.976471
35.154037 -36.109928 0.872475 0.874510
-11.147715 -3.713183 -2.031573 0.952941
2.531113 2.591152 -1.352581 0.984314
4.023802 0.390701 -2.042937 0.984314
12.642735 -9.877520 -1.598002 0.933333
0.943968 16.709492 -1.436265 0.949020
7.110352 -0.524873 -2.031573 0.972549
-6.886545 -5.395658 -2.032581 0.960784
20.663349 1.750779 -2.041657 0.960784
11.359077 -5.075408 -2.044615 0.952941
-35.307144 -23.129444 -1.086152 0.854902
4.140603 2.622506 -1.192797 0.972549
6.226845 -5.942966 -2.043563 0.972549
0.497793 -3.136094 -1.432764 0.984314
4.112230 -8.917431 -2.043022 0.980392
8.312478 -5.259759 -2.032581 0.972549
4.492185 2.595123 -1.657805 0.972549
2.016931 0.902150 -1.889314 0.988235
-0.469551 -4.819131 -2.031573 0.980392
-7.827815 0.205406 -2.032581 0.956863
-5.107793 -1.111953 -2.031573 0.976471
2.578542 6.127331 -1.891504 0.988235
-1.972832 3.399492 -2.031573 0.984314
-7.282874 -7.290282 -2.040831 0.968627
10.768259 -6.483997 -2.032581 0.964706
0.023162 -0.912474 -1.701986 0.984314
21.799072 6.101776 -1.967195 0.952941
29.783262 -14.380931 -1.922338 0.956863
-30.908884 14.594620 -1.892020 0.870588
3.274646 -7.915071 -2.032581 0.980392
22.229607 9.954820 -1.880181 0.909804
-12.702128 1.194707 -2.031573 0.949020
-1.706464 -20.584469 -1.888991 0.945098
-15.407501 -2.174621 -2.045746 0.929412
-0.334320 0.868132 -1.086388 0.984314
4.266811 1.545076 -2.042689 0.988235
0.708848 -9.815020 -2.042311 0.984314
3.777673 -0.333988 -2.032581 0.984314
26.998131 -6.965376 -2.042112 0.980392
1.169724 2.817858 -0.941380 0.972549
11.786511 16.096634 -1.466062 0.937255
12.465522 -5.908494 -2.044800 0.949020
24.671139 -3.744389 -2.041941 0.980392
31.627035 6.883233 -1.885919 0.956863
-5.107773 1.111934 -2.031573 0.976471
19.218979 -5.446900 -2.042227 0.925490
13.044611 -9.657640 -1.377639 0.933333
6.136189 -1.943607 -2.032581 0.980392
-17.078789 1.375781 -2.031573 0.933333
30.691830 2.329645 -2.039443 0.976471
-0.956937 0.901570 -1.842794 0.980392
28.333282 13.884834 -1.391446 0.933333
-16.907053 -4.022836 -2.032581 0.925490
9.380490 16.082150 -1.541313 0.945098
28.492290 -6.922037 -2.041790 0.984314
1.008591 -6.305551 -0.893335 0.988235
18.875301 21.155605 0.016732 0.898039
-8.584989 -10.240938 -2.040452 0.964706
-0.759961 -6.101328 -1.751988 0.976471
13.539484 17.477442 -1.093765 0.894118
2.327871 2.583027 -1.568970 0.984314
29.875792 -0.342338 -2.040159 0.984314
27.572290 -5.892554 -2.041773 0.988235
23.294811 -3.955570 -2.042272 0.976471
-2.711895 3.594082 -2.031573 0.980392
-8.023020 1.660614 -2.044136 0.956863
-7.490666 -11.550316 -2.032581 0.949020
23.771475 1.009001 -2.041159 0.972549
19.616611 1.395370 -2.041949 0.956863
-1.081623 -26.177612 -0.533071 0.858824
-8.869199 6.281816 -1.879173 0.956863
27.667570 0.321891 -2.040485 0.980392
0.587706 0.790468 -0.939771 0.988235
15.390251 -8.523578 -2.032581 0.945098
-0.288841 -4.177341 -2.042344 0.984314
0.662559 -2.902842 -1.022463 0.988235
1.525935 -0.035013 -0.870077 0.984314
27.038263 -10.258415 -2.042775 0.972549
0.636502 -6.111283 -1.224462 0.988235
-10.340706 -2.993617 -2.032581 0.949020
1.799339 2.739548 -0.959981 0.960784
20.402126 -10.458383 -2.032581 0.925490
-5.654162 -1.180326 -2.032581 0.964706
-25.259687 -17.387548 -0.356823 0.886275
24.916519 13.178108 -1.842363 0.933333
-10.844782 -25.249554 -0.890006 0.882353
-24.912617 -24.498837 -0.871378 0.870588
-22.827950 -12.343467 -2.031573 0.901961
9.128631 26.010006 0.852224 0.886275
-13.401777 3.873154 -2.031573 0.945098
0.286152 3.155615 -2.031573 0.984314
-0.348086 6.106924 -1.920259 0.976471
8.564746 16.493877 -1.454893 0.929412
-11.496643 -4.624418 -2.032581 0.945098
3.590740 -0.950580 -2.032581 0.984314
0.056973 5.669199 -2.031573 0.976471
-68.179245 6.334893 -1.898043 0.752941
1.634062 2.610293 -1.196842 0.988235
2.015771 -4.417299 -1.593976 0.984314
30.586576 2.971529 -2.039335 0.972549
0.529529 -1.170404 -2.032581 0.984314
0.741406 2.736396 -1.417923 0.988235
21.364243 -6.373539 -2.043168 0.968627
-15.179727 -7.946982 -2.031573 0.933333
-3.470508 5.462129 -2.031573 0.972549
-1.837929 7.047272 -0.264982 0.976471
-10.964737 5.849845 -2.043693 0.945098
-1.606836 4.567500 -2.031573 0.980392
-11.390589 -1.459711 -2.032581 0.945098
-23.745550 16.308598 -1.572106 0.890196
-2.027618 -9.324746 -2.041789 0.984314
-3.880195 10.152217 -1.879173 0.956863
4.212538 5.606377 -2.041925 0.988235
-3.262756 -3.202308 -2.032581 0.976471
0.276660 11.797891 -1.879173 0.952941
1.790820 -2.860703 -1.469158 0.984314
-11.297249 -0.907582 -2.032581 0.945098
5.261289 2.112490 -2.031573 0.976471
-0.321506 -5.654564 -2.032581 0.984314
-7.122324 2.372324 -2.031573 0.968627
-4.838571 -3.864088 -2.041456 0.976471
11.244519 -9.370069 -2.044416 0.952941
0.597635 6.111783 -1.916997 0.984314
5.439512 -0.109316 -2.031573 0.976471
7.481868 -1.835677 -2.042945 0.968627
-15.780410 17.747850 -1.224854 0.909804
11.139101 2.734461 -2.041641 0.964706
28.036280 -0.425248 -2.040560 0.984314
-2.804954 -2.972340 -2.041895 0.980392
3.589472 6.007607 -2.041924 0.988235
-24.886412 -8.979955 -2.048170 0.886275
29.506672 -0.064867 -2.040180 0.984314
-0.342997 0.638973 -2.043412 0.984314
5.288530 1.121854 -2.042647 0.984314
-8.302656 8.386465 -1.879173 0.952941
26.821594 1.541111 -2.040413 0.976471
26.357487 -6.117310 -2.042072 0.984314
30.477629 -1.145629 -2.040197 0.988235
43.183731 15.368937 -1.223236 0.909804
28.740788 -6.404771 -2.041633 0.984314
8.181328 -1.838535 -2.031573 0.964706
30.309265 -5.984927 -2.041219 0.988235
-0.085047 -27.590866 -0.052323 0.921569
-25.876291 6.103098 -1.959026 0.890196
-2.614082 2.436396 -2.031573 0.984314
7.857832 -4.181084 -2.031573 0.964706
-1.826591 7.040363 -1.469592 0.976471
28.107769 6.087117 -2.038977 0.901961
2.255994 -6.622972 -1.074964 0.988235
-7.565472 15.988209 -1.717073 0.917647
-2.003359 -1.769326 -2.031573 0.988235
24.329294 21.095648 0.415605 0.894118
-0.227822 -14.083107 -1.889550 0.972549
-14.555119 23.166880 0.049099 0.882353
5.862215 6.756479 -1.889110 0.980392
-11.395987 23.985703 0.323639 0.905882
21.338690 -12.057222 -2.044333 0.952941
3.572373 -1.925306 -2.043430 0.976471
-16.922733 -25.862324 -0.770753 0.882353
2.077755 -9.515498 -2.042594 0.984314
2.085957 2.024023 -2.031573 0.984314
22.372675 18.972372 -0.341339 0.890196
1.354590 2.608633 -1.233290 0.988235
15.142106 -9.645834 -1.300861 0.945098
-0.593219 0.913899 -1.359998 0.984314
6.509349 -15.291761 -1.890835 0.956863
-29.843967 -8.598026 -2.036308 0.886275
0.977459 -6.185287 -1.043957 0.988235
4.673103 -1.041449 -2.032581 0.984314
2.619857 0.782336 -1.507605 0.988235
-1.213861 -3.727985 -2.042179 0.984314
6.981063 -5.304331 -2.043663 0.960784
-9.568000 22.667643 0.009760 0.882353
-1.628352 -3.234967 -2.042118 0.980392
-12.314798 1.469226 -2.040193 0.941176
-6.457191 -8.310507 -2.040953 0.972549
26.992939 -0.159203 -2.040724 0.980392
0.118996 1.681102 -2.043159 0.984314
-1.989651 -1.914584 -2.032581 0.980392
-1.954062 3.265566 -2.031573 0.984314
6.912615 19.073511 -0.884261 0.913725
4.635935 -0.125648 -2.032581 0.980392
-4.143672 1.761240 -2.031573 0.980392
0.389512 2.964971 -2.031573 0.984314
-9.258714 -2.094027 -2.032581 0.952941
4.463074 7.202065 -1.889193 0.980392
0.570215 3.060322 -1.209826 0.988235
29.429771 -2.958570 -0.718477 0.894118
3.261047 -0.010207 -2.043104 0.984314
-3.599630 -8.636826 -2.041506 0.984314
1.279802 -6.097650 -0.972009 0.988235
2.068377 -6.102025 -1.730574 0.988235
23.446474 -0.004524 -2.041434 0.972549
-12.220813 -24.223019 0.367697 0.882353
2.337265 -2.593447 -1.631516 0.984314
-7.089902 2.467539 -2.031573 0.968627
12.004703 21.974165 0.015353 0.921569
2.042408 6.816607 -1.889555 0.984314
72.002907 -22.306463 0.128622 0.741176
2.898826 -12.257941 -2.042645 0.976471
-5.046309 17.244200 -1.406573 0.929412
35.704273 1.455816 -2.038574 0.964706
24.515574 -3.259359 -2.041874 0.980392
-3.677734 3.714854 -2.031573 0.976471
29.979982 -17.468597 -1.891231 0.945098
33.425026 -5.581061 -2.040486 0.980392
4.188709 -25.418217 -0.802419 0.925490
-26.739656 6.093661 -2.009838 0.886275
6.738705 16.176376 -1.584183 0.886275
2.907077 7.273208 -1.889365 0.984314
26.551884 -1.132455 -2.041015 0.984314
0.637773 -3.422871 -0.892732 0.984314
3.337168 -2.907715 -0.765296 0.980392
-1.726980 2.537343 -2.043217 0.980392
19.107048 9.432807 -1.887019 0.929412
33.421913 13.298902 -1.615092 0.933333
-3.464184 20.933109 -0.498530 0.929412
-2.624181 -8.794755 -2.041692 0.984314
-9.289453 1.892314 -2.031573 0.960784
1.039402 -4.185378 -2.042607 0.984314
43.295341 -9.048681 -2.039131 0.941176
24.917091 -11.230299 -2.043417 0.964706
0.510625 -9.618388 -2.042280 0.988235
22.209183 -7.171108 -2.043154 0.968627
34.049316 -15.333965 -1.904257 0.949020
0.766250 2.828047 -1.049920 0.988235
8.774805 3.539061 -2.041772 0.972549
0.147773 -6.301650 -0.832518 0.976471
0.447375 1.100604 -2.043230 0.984314
3.720859 13.732910 -1.879173 0.945098
0.594883 3.192734 -1.019538 0.988235
-0.511680 -6.096601 -1.396396 0.976471
0.970937 2.490225 -2.031573 0.988235
31.489927 10.322482 -1.885246 0.945098
-10.849004 20.555195 -0.579640 0.909804
-2.080527 -3.817129 -2.031573 0.980392
19.605051 2.778684 -1.397567 0.956863
35.656521 3.151352 -2.038239 0.960784
-4.084846 -0.545463 -2.032581 0.972549
-38.340839 -18.538898 -1.899191 0.831373
31.583433 4.345914 -2.038846 0.964706
-40.506432 -14.070498 -1.898603 0.831373
-2.980369 6.411460 -1.890232 0.976471
7.190798 -6.953158 -2.032581 0.976471
11.564568 -23.052942 -1.405198 0.917647
0.179744 -5.512611 -2.032581 0.984314
2.525158 2.901030 -0.714399 0.960784
32.524345 -5.634625 -2.040685 0.980392
8.167215 -7.601902 -2.043879 0.968627
-1.005715 -3.023053 -2.042250 0.980392
-6.038363 -8.739061 -2.041018 0.972549
1.785650 0.671960 -1.407362 0.988235
-18.408300 -29.848612 0.991278 0.870588
0.334626 -5.322445 -2.032581 0.988235
0.512715 3.535361 -1.226731 0.984314
4.633337 -1.271547 -2.032581 0.984314
4.894597 -6.833504 -2.043262 0.980392
13.329270 7.544028 -1.888068 0.952941
-5.458203 -6.189832 -2.041238 0.976471
-0.370840 -3.341601 -2.031573 0.984314
3.575000 -2.716338 -0.962154 0.980392
-7.772207 4.338086 -2.031573 0.964706
6.506892 -1.316000 -2.032581 0.980392
-3.014688 -2.522012 -2.031573 0.984314
6.136017 -11.670860 -2.043310 0.968627
3.532247 -10.932960 -2.042824 0.976471
38.743229 8.369150 0.416466 0.941176
2.553119 -2.592800 -1.448638 0.976471
-3.286681 -8.711356 -2.041564 0.984314
8.000368 -7.311156 -2.032581 0.972549
4.246833 -0.941556 -2.032581 0.984314
4.386245 1.775477 -2.042631 0.988235
-7.538074 -17.341225 -1.895281 0.909804
29.583796 -6.941969 -2.041566 0.984314
25.202173 -5.671069 -2.042223 0.980392
0.581716 -6.116420 -1.189743 0.988235
-1.783915 1.713329 -2.043380 0.980392
-5.270376 -10.412373 -2.041101 0.972549
24.816936 -9.562848 -2.043097 0.968627
-15.275312 24.768661 0.435360 0.890196
35.182571 -0.005992 -2.038981 0.972549
-1.581802 -0.718839 -1.089751 0.972549
-1.628363 -11.058028 -2.041797 0.980392
3.368398 19.527685 -0.758018 0.925490
-3.963778 0.734674 -2.041818 0.964706
1.265528 -4.362618 -1.154448 0.988235
1.431443 -6.122923 -1.173217 0.988235
-8.337226 -0.897002 -2.031573 0.964706
-3.091652 -29.713448 0.855309 0.874510
12.813298 -29.211430 0.411540 0.894118
16.874012 2.623994 -2.042271 0.945098
1.860358 -3.386983 -0.595987 0.984314
-1.384223 -11.680225 -2.041820 0.980392
-3.612195 -12.496945 -2.041345 0.972549
1.423709 -4.401436 -1.695727 0.988235
66.376579 -23.187757 -1.731163 0.756863
-16.741018 -0.926937 -2.032581 0.925490
2.666775 -7.068216 -1.177603 0.984314
16.805487 -23.341732 -1.229033 0.886275
4.414314 -1.071469 -2.032581 0.984314
1.103728 -0.898256 -1.656804 0.988235
26.958351 0.907086 -2.040514 0.980392
23.610218 -7.909926 -2.043012 0.972549
16.696209 -18.149427 -1.880181 0.921569
1.841895 1.936846 -2.031573 0.988235
29.738598 -8.471051 -2.041846 0.980392
-6.383105 -16.700909 -1.879173 0.929412
0.227246 -3.566221 -2.031573 0.984314
-2.680691 3.906621 -2.043072 0.976471
-3.097109 5.682178 -2.031573 0.972549
-2.865964 -12.581466 -2.041489 0.972549
-1.752051 -3.114473 -2.031573 0.984314
12.788861 -9.875416 -1.787154 0.949020
30.438593 -7.269990 -2.031573 0.882353
0.775000 -2.715674 -1.459699 0.988235
0.591992 2.956660 -1.218276 0.988235
-5.617563 -9.118194 -2.041086 0.976471
-3.681928 10.348746 -1.889570 0.964706
-2.381955 -4.279750 -2.032581 0.980392
3.915915 0.403453 -2.032581 0.980392
-11.314726 -2.337649 -2.045288 0.941176
-0.010159 -1.013500 -2.032581 0.984314
42.073204 -25.367636 -1.879173 0.819608
0.114668 0.913810 -1.672416 0.984314
1.153978 1.036683 -1.004278 0.988235
1.302832 2.593330 -1.860788 0.988235
-52.941933 -4.264785 -2.031573 0.807843
-17.197971 -26.470045 -0.526505 0.866667
34.574699 -0.262154 -2.039161 0.972549
-26.205296 -23.516672 -1.293741 0.882353
4.739802 2.516490 -2.032581 0.972549
28.370075 17.932770 -0.395393 0.874510
21.420019 -26.347591 -0.349087 0.909804
34.313835 -5.581491 -2.040301 0.976471
55.240211 1.108141 -2.032581 0.807843
-6.666934 -1.265322 -2.031573 0.972549
1.480996 2.591797 -1.394983 0.988235
12.400288 -9.932069 -0.694772 0.933333
-3.259219 4.086914 -2.031573 0.976471
32.610306 1.433062 -2.039226 0.976471
27.218185 -10.311520 -2.042748 0.972549
3.976465 2.621006 -1.153854 0.980392
4.070006 6.399809 -1.889392 0.984314
-1.950976 -2.380342 -2.031573 0.984314
-10.926369 7.157917 -1.891041 0.945098
1.184171 0.928342 -0.907872 0.988235
0.301303 -13.269807 -2.042088 0.972549
30.705008 -5.558765 -2.041050 0.988235
23.388031 -5.638617 -2.042595 0.976471
1.330974 -27.854065 0.685407 0.905882
4.076521 2.712418 -1.564260 0.972549
4.242760 6.422534 -1.889367 0.984314
27.309347 1.733034 -2.040272 0.976471
-11.508352 -20.488667 -1.896353 0.894118
6.030097 5.179931 -2.041789 0.980392
26.489183 -7.547798 -2.042337 0.980392
0.065020 -6.471142 -2.031573 0.972549
3.688418 2.649707 -1.100301 0.980392
4.619782 -0.426078 -2.032581 0.984314
-5.268293 0.707831 -2.043987 0.968627
-2.073516 2.395898 -2.031573 0.984314
7.239043 15.979755 -1.608253 0.933333
-3.629924 18.143873 -1.162425 0.913725
0.004372 5.455635 -2.042457 0.984314
-1.491420 -4.287477 -2.042102 0.984314
25.608652 -28.772877 0.313696 0.901961
-7.579182 -5.259954 -2.032581 0.960784
19.145838 3.083505 -0.024444 0.952941
4.900076 -0.316742 -2.032581 0.980392
-2.306976 -10.716036 -2.041676 0.980392
36.359928 -10.429773 -2.040862 0.960784
-4.631063 -13.116984 -2.041117 0.968627
3.062718 -8.853075 -2.042816 0.984314
3.475335 2.714440 -0.996341 0.960784
2.176824 -4.814450 -2.042807 0.984314
-1.553393 -4.425280 -2.042084 0.984314
-4.868359 -6.475711 -2.041343 0.980392
4.833375 11.204644 0.945548 0.968627
5.868242 0.750928 -2.031573 0.976471
-18.470617 -20.445299 -1.885675 0.913725
0.879238 -3.245107 -2.031573 0.984314
40.411366 13.761875 -1.632862 0.843137
3.464855 11.519098 -1.888493 0.968627
26.050657 2.392146 -2.040401 0.972549
-7.127109 0.190986 -2.031573 0.972549
-37.614170 17.424408 -1.195093 0.835294
6.261972 4.983066 -2.041798 0.980392
10.684314 -4.679867 -2.032581 0.964706
-2.215156 1.754414 -2.031573 0.984314
7.626504 2.148828 -2.031573 0.968627
1.709434 -2.730664 -0.917980 0.988235
7.343806 -2.668500 -2.032581 0.980392
-23.173641 -12.164244 -2.048569 0.886275
51.413727 -11.841140 -1.885604 0.909804
-4.978106 -2.195127 -2.031573 0.976471
-8.966678 -15.569094 -1.887758 0.952941
2.383064 -0.894467 -1.534247 0.988235
-18.349745 -22.387899 -1.879173 0.890196
-7.145599 20.033365 -0.739576 0.894118
-2.874963 -0.281801 -2.032581 0.972549
-0.723049 -0.899838 -1.581747 0.984314
-2.142996 3.252157 -2.043131 0.980392
8.081346 9.515103 -1.880181 0.945098
11.969453 13.281435 -1.879173 0.929412
-35.868549 -20.645840 -1.857535 0.835294
36.439110 -4.606559 -2.039657 0.968627
3.805271 0.599928 -2.032581 0.980392
30.064093 -0.867758 -2.040227 0.984314
0.798005 -6.089877 -1.422334 0.988235
4.968789 -0.771641 -2.031573 0.980392
2.215543 -13.202648 -2.042470 0.972549
5.452653 14.722702 -1.887648 0.952941
23.555729 -4.162396 -2.042259 0.976471
0.279862 -10.805997 -2.042185 0.984314
-74.924072 24.956161 0.131278 0.729412
-1.024777 -0.899624 -1.383478 0.976471
0.840837 -6.097543 -1.318306 0.988235
1.248247 6.309829 -1.889746 0.984314
12.607148 1.957822 -2.031573 0.949020
4.085941 -8.972442 -2.043015 0.980392
5.037313 7.230904 -1.889118 0.980392
6.767217 -3.462133 -2.043339 0.968627
0.099245 8.884635 -1.889395 0.976471
2.856688 8.412545 -1.889155 0.980392
5.255173 -0.241478 -2.032581 0.980392
-0.262959 -11.204873 -2.048673 0.886275
30.453510 3.728347 -2.039208 0.968627
0.571403 5.565478 -2.042368 0.988235
77.300507 8.631867 -1.876018 0.819608
24.329542 1.119128 -2.041020 0.972549
1.137967 24.322653 0.439876 0.882353
1.754690 0.533923 -0.964048 0.988235
-11.967052 -3.887975 -2.040042 0.952941
-6.480666 2.778580 -2.032581 0.956863
8.405720 5.552194 -2.032581 0.956863
73.563629 12.244687 -1.151821 0.827451
25.252636 13.005664 -1.843956 0.894118
2.834386 14.985436 -1.869237 0.952941
29.940144 -6.386793 -2.041379 0.984314
28.892338 3.131862 -2.039656 0.972549
1.977386 6.114475 -1.904450 0.988235
5.413906 -1.683213 -2.031573 0.976471
1.070215 2.449199 -2.031573 0.988235
10.581658 -2.410318 -2.044570 0.952941
-10.037795 2.790924 -2.032581 0.945098
13.164017 -27.745476 -0.018741 0.874510
26.402569 1.071755 -2.040596 0.976471
-0.950527 6.878477 -1.879173 0.972549
3.254648 -1.731787 -2.031573 0.984314
-4.757572 -14.689504 -1.888628 0.964706
-2.010391 -3.688447 -2.031573 0.980392
-8.018750 5.057217 -2.031573 0.960784
8.574959 -6.281722 -2.032581 0.972549
-0.412578 2.716738 -2.031573 0.988235
3.837832 -2.042080 -2.031573 0.980392
-12.309045 6.105030 -1.951368 0.929412
-0.354336 -6.216533 -0.991502 0.976471
3.569841 0.239215 -2.032581 0.984314
-2.327012 -7.574014 -2.031573 0.968627
21.582460 -24.603125 -0.816183 0.878431
-12.078686 -12.907903 -2.039650 0.949020
2.473904 -7.007328 -1.103047 0.984314
5.814258 -13.807373 -1.978701 0.941176
-0.343906 20.533466 -0.512159 0.921569
6.867144 0.559295 -2.042565 0.976471
2.010669 6.709302 -1.889579 0.984314
7.922141 -4.876237 -2.043942 0.968627
-7.614358 0.747448 -2.032581 0.956863
0.246708 -2.906011 -2.042503 0.980392
7.052420 -5.376937 -2.032581 0.980392
11.267126 18.386362 -0.907034 0.909804
-1.772109 7.103037 -0.475247 0.972549
12.917110 23.713543 0.481102 0.874510
-6.213089 -27.179979 -0.030382 0.843137
-8.791330 19.916744 -0.305471 0.901961
28.129765 -13.465837 -2.043201 0.960784
30.367706 16.436752 -0.785969 0.921569
-2.040840 3.212041 -2.031573 0.984314
5.455380 8.217759 -1.888881 0.976471
-0.578594 8.212812 -1.879173 0.968627
9.888259 0.229020 -2.032581 0.964706
3.184910 8.372544 -1.889124 0.980392
0.547051 -23.329725 -1.514893 0.909804
0.046488 -0.875490 -1.116352 0.976471
0.993972 -4.305068 -1.048133 0.988235
24.538132 -3.014476 -2.041820 0.980392
3.393893 6.480767 -1.889457 0.984314
24.164040 0.475621 -2.032581 0.913725
-11.035958 16.028826 -1.739702 0.929412
2.971134 6.111579 -1.917738 0.988235
11.178825 -7.033763 -2.032581 0.960784
4.050108 11.982126 -0.523556 0.925490
-1.469280 -10.268486 -2.041861 0.984314
30.876825 -27.361771 -0.484717 0.862745
-8.495017 -16.036613 -1.887832 0.952941
2.437368 6.129614 -1.889638 0.988235
-0.348518 -5.446547 -2.032581 0.984314
-11.146261 4.041612 -2.044058 0.945098
0.312568 -2.766744 -2.042521 0.980392
-23.391310 17.255394 -1.350755 0.874510
0.803595 -4.269813 -1.211557 0.988235
-14.736144 6.359123 -1.887514 0.921569
40.502666 -5.810975 -2.039054 0.952941
-13.711875 -10.274384 -2.031573 0.933333
1.285743 -9.421152 -2.042441 0.988235
-4.088219 8.231529 -1.890020 0.968627
26.780869 -1.880961 -2.041120 0.984314
34.268566 -2.108619 -2.039601 0.976471
2.382947 -6.146136 -1.368283 0.988235
2.013652 -10.546554 -2.042539 0.980392
29.728342 -11.781198 -2.042523 0.964706
-6.371408 0.081315 -2.032581 0.960784
0.206834 -1.469164 -2.032581 0.984314
-7.434495 -28.217621 0.394392 0.898039
-0.784863 -5.168174 -2.031573 0.976471
-0.365041 -5.244310 -2.032581 0.984314
-28.820265 -5.179799 -2.032581 0.882353
19.265856 -0.653109 -2.032581 0.933333
31.237850 1.885488 -2.031573 0.882353
-9.338833 -27.092302 -0.029475 0.835294
13.375625 3.962852 -2.031573 0.945098
71.282501 -18.932510 -1.798207 0.749020
31.801590 -5.989986 -2.040909 0.984314
27.616865 -0.246137 -2.040612 0.984314
19.443123 -27.751625 0.045681 0.886275
-6.438183 2.144453 -2.031573 0.972549
-39.472023 23.318275 -0.004532 0.831373
2.383064 -6.115932 -1.533757 0.988235
22.560520 3.983221 -2.040806 0.960784
-1.284004 3.107236 -2.031573 0.984314
18.118607 -13.796180 -2.042878 0.941176
136.976639 11.709461 -1.172163 0.647059
4.655388 -1.688011 -2.032581 0.984314
-2.044180 4.594023 -2.031573 0.980392
25.249359 -6.367886 -2.042355 0.980392
26.267818 -6.200864 -2.042108 0.984314
34.692917 -7.820446 -2.040678 0.972549
18.081423 2.551286 -0.870844 0.933333
4.319379 -8.874257 -2.043065 0.980392
13.097237 -7.153952 -2.043282 0.941176
-2.122949 -4.156211 -2.031573 0.980392
2.152051 2.661797 -1.024752 0.984314
-13.915648 1.684537 -2.032581 0.933333
3.194626 -12.359447 -2.032581 0.964706
-8.107109 24.070282 0.380028 0.901961
24.207594 -22.091799 -1.561952 0.925490
-2.941660 -26.507303 -0.310323 0.898039
-0.118284 -6.405951 -0.719303 0.984314
-0.716077 -0.834095 -0.996376 0.984314
2.747598 -2.595430 -1.527057 0.984314
38.441593 -2.750485 -2.038860 0.960784
-13.754863 9.861667 -1.890867 0.933333
0.805703 -0.109077 -0.632407 0.984314
1.618672 2.922949 -0.762606 0.988235
4.250743 -11.248467 -2.042954 0.976471
0.318644 0.563084 -2.043347 0.984314
5.646873 -5.468236 -2.032581 0.984314
4.193467 6.104532 -1.955689 0.984314
2.362082 0.570789 -2.043101 0.984314
29.720617 -0.204994 -2.040164 0.984314
-1.453496 -3.388105 -2.031573 0.984314
11.862038 22.008915 0.016456 0.882353
0.636968 -13.245324 -2.042156 0.972549
27.206749 -0.843949 -2.040819 0.984314
0.958984 -2.668730 -1.234440 0.988235
-11.006975 -27.323225 0.041989 0.898039
1.520059 2.660166 -1.052112 0.988235
-1.863489 -2.841382 -2.042087 0.980392
-4.054004 3.300127 -2.031573 0.976471
4.323591 -9.370726 -2.032581 0.972549
1.676192 -9.471162 -2.042516 0.984314
1.114177 -1.161595 -2.032581 0.988235
-0.417407 -12.723840 -2.041968 0.976471
29.040401 -0.348188 -2.040335 0.984314
-0.765633 2.044520 -2.043195 0.984314
-2.026895 1.742305 -2.031573 0.988235
-4.091300 1.036132 -2.043784 0.972549
13.195662 -3.276051 -2.045053 0.945098
1.141091 -0.886107 -1.131585 0.988235
-0.694918 20.680500 -0.497064 0.858824
0.454500 -4.281715 -2.042487 0.988235
21.105566 -10.621899 -2.044089 0.956863
1.405811 15.471022 -1.789726 0.952941
23.905384 3.505418 -2.040622 0.964706
9.800974 -4.656224 -2.032581 0.968627
24.585655 0.524206 -2.041088 0.976471
4.667461 2.646338 -1.224630 0.976471
26.050262 -1.589213 -2.041213 0.984314
12.337500 -25.400976 -0.704229 0.894118
1.846399 0.580180 -0.987955 0.988235
9.147688 -5.449236 -2.044162 0.960784
-0.769946 4.950342 -2.042645 0.984314
-0.022801 1.288153 -2.043250 0.984314
0.495703 -3.773154 -2.031573 0.984314
-2.917676 4.592031 -2.031573 0.976471
13.215407 3.219703 -2.032581 0.949020
-5.197867 -3.429674 -2.041402 0.972549
4.647285 -2.393457 -2.031573 0.976471
0.428085 -10.046690 -2.042246 0.984314
-2.682053 -9.552382 -2.041650 0.984314
-5.215799 -5.187575 -2.041327 0.976471
0.235795 0.913883 -1.746048 0.984314
-0.747756 -1.808011 -2.032581 0.984314
7.024134 6.277763 -1.892909 0.976471
-28.426067 2.772135 -0.369417 0.882353
27.229458 -7.757505 -2.042225 0.980392
-11.660390 -29.324608 0.891981 0.882353
-5.926425 -3.963516 -2.031573 0.972549
-7.900372 18.666868 -1.071656 0.898039
1.025781 -2.630889 -1.365647 0.988235
0.143527 1.650555 -2.043162 0.984314
-2.361152 5.713857 -2.031573 0.972549
-9.979795 4.327695 -2.043864 0.949020
0.548962 -6.089056 -1.384840 0.984314
1.253427 0.896138 -1.205756 0.988235
-0.080100 -10.943370 -2.042108 0.984314
2.844490 -6.627269 -1.426732 0.984314
3.679375 -23.180155 -1.523624 0.909804
-10.247639 -29.091116 0.803161 0.890196
-4.195957 -2.416299 -2.031573 0.980392
24.537151 -8.423296 -2.042923 0.972549
-0.198831 -0.888812 -2.032581 0.984314
20.209391 -10.938392 -2.032581 0.925490
6.617961 10.421266 -1.888324 0.968627
1.395137 2.367402 -2.031573 0.988235
5.627009 -0.609593 -2.032581 0.980392
15.899725 15.900393 -1.455841 0.929412
-2.753223 4.207559 -2.031573 0.980392
59.271080 4.936036 -2.032940 0.882353
-22.060677 11.916070 -1.880181 0.890196
0.301250 2.890879 -2.031573 0.984314
-8.938498 -4.803171 -2.040605 0.964706
-5.204219 -10.534541 -2.031573 0.952941
26.577814 7.808889 -1.886786 0.952941
25.284281 -7.313267 -2.042541 0.976471
-5.704746 -6.231004 -2.041187 0.976471
29.766575 1.550924 -2.039796 0.976471
23.651377 0.864275 -2.041214 0.972549
-0.145938 -4.839746 -2.031573 0.980392
-2.968687 -4.964098 -2.041781 0.984314
-13.293183 4.230772 -2.031573 0.945098
-0.115529 -10.363867 -2.042125 0.984314
7.900781 2.809238 -2.031573 0.964706
0.955849 0.910296 -1.395139 0.988235
0.503883 20.663004 -0.465803 0.933333
3.202615 -6.208998 -2.032581 0.984314
9.658683 -18.962261 -1.891309 0.941176
3.298697 6.318442 -1.889499 0.984314
1.096582 9.311591 -1.879173 0.960784
1.347361 -6.905072 -0.865061 0.984314
1.763032 0.744858 -1.422545 0.988235
31.137526 -7.501364 -2.041356 0.980392
-0.719711 -11.644523 -2.041953 0.980392
0.827200 -0.193051 -0.642428 0.984314
1.479412 -6.099134 -1.766234 0.988235
17.725534 15.459414 -1.540863 0.925490
25.212994 -4.975923 -2.042079 0.980392
4.010427 -0.995394 -2.032581 0.984314
18.314346 2.835087 -2.041927 0.949020
8.203131 -8.846637 -2.044188 0.945098
10.922966 0.602780 -2.032581 0.960784
0.205115 -13.390756 -2.032581 0.960784
-0.796289 3.599687 -2.031573 0.984314
6.046230 -16.825800 -1.879173 0.929412
-3.545888 2.530429 -2.043436 0.976471
48.051567 -12.697633 -0.831575 0.917647
-10.596171 6.101953 -1.947082 0.952941
7.566128 -26.402435 -0.432125 0.886275
2.996361 -13.887941 -1.890197 0.968627
0.179707 2.820039 -2.031573 0.984314
-14.971464 -25.246824 -1.002009 0.909804
26.428448 0.390856 -2.040730 0.980392
-0.267441 3.796152 -2.031573 0.984314
0.726152 -3.181436 -2.031573 0.984314
31.095596 -1.624653 -2.040166 0.988235
-12.630839 -28.386522 0.464833 0.882353
14.178923 -11.122278 -2.045639 0.933333
-0.650594 2.047196 -2.043181 0.984314
30.909437 -17.384964 -1.891020 0.945098
26.771271 -10.169820 -2.042813 0.972549
19.898560 -4.931585 -2.043180 0.960784
-8.252637 -11.247432 -2.031573 0.945098
1.224465 0.730496 -2.043207 0.984314
-7.015929 23.932098 0.296067 0.913725
-14.304214 17.097376 0.838639 0.917647
-28.149826 -10.154398 -2.032581 0.882353
4.159813 -4.404603 -1.892052 0.980392
20.982073 -8.094468 -2.043599 0.960784
7.226677 -13.808909 -1.971300 0.952941
-2.251426 -2.098418 -2.031573 0.984314
-2.792211 -11.005264 -2.041568 0.980392
-7.959004 8.713291 -1.879173 0.952941
11.361873 22.181608 0.031298 0.882353
5.028824 -2.964202 -1.165861 0.972549
34.656689 -4.202682 -2.039948 0.976471
19.433924 19.804935 -0.322665 0.901961
-1.140513 -26.732103 -0.316720 0.925490
-8.331387 21.798418 -0.271573 0.909804
11.843473 -2.935111 -2.032581 0.960784
28.569195 13.825347 -1.385862 0.933333
30.233479 -12.238258 -2.042511 0.964706
22.098736 -3.847826 -2.042499 0.972549
3.046630 -4.472184 -2.042993 0.984314
3.524795 -4.383141 -2.043092 0.980392
18.658302 -3.063873 -2.046144 0.925490
10.438417 -21.491114 -1.870323 0.909804
18.227257 4.805888 -2.041543 0.945098
18.335485 15.168375 -1.597503 0.905882
5.949001 -7.050941 -2.032581 0.980392
24.216354 -4.357543 -2.042161 0.980392
2.379425 -4.412653 -1.482708 0.984314
-2.687500 2.187725 -2.031573 0.984314
-0.520938 -3.769756 -2.031573 0.984314
116.695869 -9.577029 0.266145 0.631373
-12.227959 -13.815352 -1.931751 0.945098
-2.741147 -3.760143 -2.041876 0.980392
0.309336 -6.151943 -1.065018 0.976471
1.203591 -5.994261 -0.950462 0.988235
27.526943 -0.865736 -2.040757 0.984314
1.992129 -2.464004 -2.031573 0.984314
6.934629 -1.656270 -2.031573 0.972549
0.624880 -5.913773 -2.032581 0.984314
-20.473633 12.532100 -1.879173 0.909804
0.379451 -5.484535 -2.032581 0.984314
10.960993 -3.423853 -2.044604 0.952941
-3.231057 20.390856 -0.615667 0.905882
6.842986 -4.889525 -2.032581 0.980392
27.432861 -0.203373 -2.040642 0.984314
9.102614 -2.555336 -2.032581 0.972549
-1.552148 2.175937 -2.031573 0.988235
-9.411406 -1.140322 -2.031573 0.960784
7.382319 0.499099 -2.042515 0.976471
35.598839 -1.920563 -2.039285 0.972549
35.191814 3.575123 -2.038249 0.960784
4.239811 6.172378 -1.889415 0.984314
31.328970 -8.680652 -2.041556 0.976471
13.867885 -29.010307 0.363421 0.886275
0.592947 -0.910990 -1.478876 0.984314
1.879630 0.751752 -1.056965 0.988235
8.526823 -8.678300 -2.043906 0.964706
0.939602 1.247645 -2.043143 0.988235
1.901406 3.129785 -0.633176 0.984314
6.229937 0.674695 -2.042619 0.980392
29.656660 20.526392 0.344306 0.909804
26.803232 -0.444037 -2.040822 0.984314
68.026146 -13.109094 -0.776827 0.764706
0.331172 6.586465 -1.879173 0.972549
5.525301 -6.960887 -2.043382 0.976471
29.663990 -6.062564 -2.041370 0.988235
-0.534063 4.812363 -2.031573 0.980392
-20.829216 -11.238127 -2.037985 0.917647
35.776398 -2.983160 -2.039465 0.972549
-5.455990 -14.210207 -1.888509 0.964706
-8.945299 -9.067998 -2.040429 0.964706
1.287531 0.971366 -2.043154 0.988235
-8.294495 3.435827 -2.032581 0.949020
0.846443 -1.143929 -2.032581 0.984314
-1.705888 0.822137 -2.043540 0.980392
1.716865 -4.148439 -1.406752 0.984314
25.413589 18.646353 -0.284796 0.913725
-5.878109 -9.216797 -2.041030 0.972549
5.109064 -10.678360 -2.043147 0.972549
0.333535 14.224131 -1.879173 0.945098
